225.25	48.875	0.429954340061	0.0025988073411	0.426634013653	0.434671998024
226	48.875	0.437039663394	0.0107271898435	0.425523996353	0.45024099946
227	48.875	0.446550798416	0.0083357589565	0.43153399229	0.45478400588
228	48.875	0.452223415176	0.00577257942647	0.445320010185	0.459192991257
229	48.875	0.476215848327	0.00584263139796	0.466190010309	0.480708003044
230	48.875	0.482178921501	0.00168977420113	0.479844510555	0.484829008579
231	48.875	0.469818556309	0.0107521895962	0.45362201333	0.484829008579
232	48.875	0.461461991071	0.00502832758677	0.452654480934	0.465081989765
233	48.875	0.492590042949	0.0308705382382	0.464695990086	0.558535516262
234	48.875	0.55335799853	0.0220949727446	0.520092010498	0.578501999378
235	48.875	0.520688903332	0.0235081585237	0.487203985453	0.549529016018
225.25	48	0.478950941563	0.0293018680106	0.429871499538	0.510673999786
226	48	0.496101337671	0.0195374144698	0.461890012026	0.516996026039
227	48	0.494918479919	0.0175114834869	0.465979009867	0.518172025681
228	48	0.467170067628	0.00802348060705	0.459594011307	0.482883989811
229	48	0.481247758865	0.00898261704084	0.464857012033	0.493247002363
230	48	0.489315931002	0.00513549125368	0.479223996401	0.494271993637
231	48	0.494743282795	0.00981253069284	0.470016002655	0.506164014339
232	48	0.477639005582	0.00621122934701	0.469291001558	0.488420009613
233	48	0.445924278498	0.0176896551707	0.412099987268	0.469559013844
234	48	0.435094537338	0.0283169683103	0.410430014133	0.510280013084
235	48	0.527485038042	0.0387778833489	0.431082993746	0.576017975807
236	47.875	0.485253334045	0.0279439903295	0.452423006296	0.540404975414
236.607142857	47.8214285714	0.455803287881	0.0103446271143	0.447120994329	0.473872005939
225.25	47	0.511085834768	0.00830533097829	0.50411349535	0.522898972034
226	47	0.526079012288	0.0117267330341	0.513899028301	0.54636400938
227	47	0.531761733691	0.00926841578708	0.512502014637	0.54636400938
228	47	0.529277000162	0.0162553136818	0.507743000984	0.552482008934
229	47	0.523642069101	0.022043593212	0.48583599925	0.556411027908
230	47	0.498626218902	0.0108817241881	0.484699994326	0.518100976944
231	47	0.497369798024	0.00464685422837	0.488067001104	0.504103004932
232	47	0.491965002484	0.0187605147317	0.469291001558	0.52322101593
233	47	0.49012333552	0.0261913325158	0.452169001102	0.526938021183
234	47	0.454084104962	0.0158190820656	0.431082993746	0.475107997656
235	47	0.516817128658	0.0583403797	0.431082993746	0.598145008087
236	47	0.538764999972	0.04039707182	0.492134004831	0.594994008541
236.625	47	0.487558583419	0.00427662974825	0.482277005911	0.494399487972
225.25	46	0.555891263485	0.00696884546124	0.545024991035	0.565934002399
226	46	0.552101210753	0.00290353236704	0.548088014126	0.556792020798
227	46	0.549501719475	0.0138430649032	0.524043023586	0.570042014122
228	46	0.547892200947	0.0138004890061	0.526914000511	0.566999018192
229	46	0.553610236645	0.00811395932749	0.535718023777	0.563355028629
230	46	0.513503070672	0.0134887063823	0.492181003094	0.534452021122
231	46	0.513532036543	0.0144678683261	0.491800993681	0.54065901041
232	46	0.545699457327	0.0102053454798	0.524605989456	0.559089004993
233	46	0.508067954779	0.0297509248254	0.467337995768	0.551756978035
234	46	0.451805734634	0.0127344088496	0.433198988438	0.474243998528
235	46	0.500824122429	0.043374686356	0.451458990574	0.595917999744
236	46	0.544158140818	0.0231244186976	0.512040019035	0.594994008541
236.625	46	0.51113730371	0.00888182525184	0.499020010233	0.528325021267
225.25	45	0.557819777065	0.00592396277424	0.548088014126	0.566067516804
226	45	0.557069778442	0.00732875099714	0.546863019466	0.569383978844
227	45	0.559771327178	0.00652680592767	0.544776976109	0.569383978844
228	45	0.545388552878	0.0107155217974	0.533608019352	0.562514007092
229	45	0.547418868542	0.00512201827219	0.538556993008	0.553615987301
230	45	0.547222779857	0.00923570383427	0.52853000164	0.554563999176
231	45	0.548268469174	0.0127837013298	0.526858985424	0.564670026302
232	45	0.540751338005	0.0100362882411	0.52522200346	0.551762998104
233	45	0.479262737433	0.0252228162209	0.452237010002	0.528855025768
234	45	0.457430445486	0.00313066238117	0.450691014528	0.459688991308
235	45	0.516143337885	0.0502203376143	0.462076991796	0.624819993973
236	45	0.589495546288	0.0263223025315	0.547456979752	0.626210987568
236.625	45	0.561920334896	0.0179853467323	0.538088023663	0.587113976479
225.25	44	0.582202363014	0.014214450221	0.570415019989	0.611642479897
226	44	0.57813025713	0.00480874180366	0.570809006691	0.588456988335
227	44	0.57974388361	0.0115045232545	0.544776976109	0.59065502882
228	44	0.572322535515	0.0239124485914	0.536714971066	0.602715015411
229	44	0.566517758369	0.0173021339527	0.540135025978	0.602715015411
230	44	0.54140453736	0.00928385075991	0.527463018894	0.558200001717
231	44	0.533017239571	0.0175795702862	0.501591026783	0.564346015453
232	44	0.509971125921	0.0198575876351	0.484934985638	0.53875297308
233	44	0.510894402266	0.0174994378646	0.477854013443	0.540865004063
234	44	0.493545730909	0.018806830766	0.46796900034	0.522104978561
235	44	0.603712717295	0.060102719403	0.492300003767	0.705875992775
236	44	0.624061540763	0.0502677508824	0.53727799654	0.698514997959
236.625	44	0.57146229744	0.0240678036375	0.529452979565	0.59484398365
225.25	43	0.627567284637	0.0117303635683	0.608146011829	0.646470546722
226	43	0.60791034831	0.012744061782	0.591582000256	0.622784018517
227	43	0.597441005707	0.0100060705472	0.589245975018	0.620773017406
228	43	0.597371896108	0.00644921632343	0.589296996593	0.606975018978
229	43	0.603297062715	0.00722740745547	0.584569990635	0.610400021076
230	43	0.582422011428	0.0167634436416	0.555306017399	0.608588993549
231	43	0.572963805993	0.0228408792578	0.545882999897	0.62299400568
232	43	0.606100334062	0.0236771770428	0.577759027481	0.633418977261
233	43	0.573152601719	0.0194754440233	0.545925974846	0.615396022797
234	43	0.516504665216	0.0160606082246	0.490684002638	0.534868001938
235	43	0.564485665162	0.025561764703	0.508583009243	0.601719975471
236	43	0.533874558078	0.0158152854142	0.518124997616	0.565907001495
236.625	43	0.517112255096	0.00376890587997	0.512893974781	0.52347099781
225.25	42	0.652842358748	0.00702496956169	0.63583701849	0.660878002644
226	42	0.6306320707	0.00920805282719	0.61573600769	0.642711997032
227	42	0.596077916622	0.0099782246771	0.585479974747	0.620773017406
228	42	0.598357065519	0.0161524974666	0.582701981068	0.629851996899
229	42	0.614002318382	0.016426862029	0.592926025391	0.647439002991
230	42	0.599720537663	0.0224417563335	0.567196011543	0.641633987427
231	42	0.616324760914	0.0303067712881	0.564563989639	0.658024013042
232	42	0.639377395312	0.0141768692154	0.597576022148	0.651781022549
233	42	0.57292232275	0.0309005724404	0.529348015785	0.632077991962
234	42	0.5072143356	0.0370105451526	0.458265990019	0.560931026936
235	42	0.537435793877	0.03439493738	0.471412986517	0.616585969925
236	42.0625	0.549220050375	0.0408946303723	0.518257021904	0.64439702034
236.583333333	42.1666666667	0.525308827559	0.019835153256	0.515932023525	0.565739989281
225.25	41	0.668213109175	0.0111445560234	0.654989004135	0.687386512756
226	41	0.625208444065	0.0135757762031	0.605664014816	0.642711997032
227	41	0.608481280009	0.0186801299917	0.591177999973	0.656139016151
228	41	0.673437668218	0.025604395492	0.634356021881	0.711665987968
229	41	0.687041274706	0.0193531921474	0.65903699398	0.71209102869
230	41	0.669540670183	0.0173486102524	0.647260010242	0.699199974537
231	41	0.637702461084	0.0190902977008	0.588361978531	0.654727995396
232	41	0.570985780822	0.0241233706745	0.540647983551	0.61404299736
233	41	0.531941394011	0.0162464803261	0.502424001694	0.560931026936
234	41	0.537086897426	0.0212506520649	0.502424001694	0.564082026482
235	41	0.591756308079	0.0325096459685	0.544872999191	0.642715513706
236	41	0.59546233548	0.0289117384213	0.551833987236	0.638374507427
236.625	41	0.557019988696	0.00863175870889	0.543154001236	0.565739989281
225.25	40	0.682051591078	0.0156487055298	0.660462975502	0.708475470543
226	40	0.633054196835	0.0157627928614	0.605664014816	0.659447014332
227	40	0.661780955791	0.0394148760549	0.605664014816	0.739440977573
228	40	0.741077268124	0.0146469099842	0.703314006329	0.755722999573
229	40	0.706060199737	0.0234272592123	0.647068023682	0.734884023666
230	40	0.6379545331	0.0466638056948	0.546236991882	0.699199974537
231	40	0.607333526611	0.0338724567277	0.546236991882	0.661292016506
232	40	0.522989066442	0.0289949408054	0.488101989031	0.581821978092
233	40	0.467164040804	0.0238662443235	0.428081005812	0.514894008636
234	40	0.484646868706	0.0291167599226	0.433494001627	0.523366987705
235	40	0.590051119328	0.0264718004554	0.544872999191	0.623008012772
236	40	0.572360666593	0.0168614261585	0.55044400692	0.598022997379
236.625	40	0.548083615303	0.00526727942447	0.536872029305	0.553793013096
225.25	39	0.666885561413	0.00760140171144	0.650846004486	0.674295008183
226	39	0.647509223885	0.0077242371435	0.636767029762	0.659447014332
227	39	0.692808147271	0.0337962004665	0.636767029762	0.739440977573
228	39	0.704957001739	0.0364049571585	0.640882015228	0.746325016022
229	39	0.669442530473	0.0214563244824	0.63160598278	0.710955023766
230	39	0.614078885979	0.0437183709981	0.546236991882	0.680342972279
231	39	0.611235332489	0.0486429905143	0.539924025536	0.704249978065
232	39	0.654708782832	0.0504329394738	0.578603029251	0.718933999538
233	39	0.553532268604	0.0574937813337	0.465649008751	0.659470975399
234	39	0.551448444526	0.0463430378976	0.472680002451	0.606805980206
235	39	0.60352460146	0.013919291737	0.566211998463	0.616384029388
236	39	0.573336336348	0.009568059053	0.555320978165	0.584571003914
236.625	39	0.566110670567	0.0102144335348	0.552635014057	0.57675999403
225.25	38	0.728269775708	0.0431601423172	0.650846004486	0.773054003716
226	38	0.685578799248	0.0483064112354	0.624481976032	0.758157014847
227	38	0.656387047768	0.0310411118867	0.616253018379	0.728484988213
228	38	0.659833403428	0.0213382008774	0.623232007027	0.69190299511
229	38	0.673200035095	0.0292768586296	0.616133987904	0.704052984715
230	38	0.699091267586	0.0112893337868	0.68217498064	0.714093029499
231	38	0.743992362022	0.038201394636	0.684186995029	0.806674003601
232	38	0.780088337262	0.0378853656412	0.710602998734	0.826515972614
233	38	0.680520675182	0.0435448380295	0.599623024464	0.75530397892
234	38	0.598739067714	0.0409649229317	0.524478018284	0.638758003712
235	38	0.588768239021	0.0365057198534	0.527648985386	0.642612993717
236	38	0.550191140175	0.0174784124703	0.529990017414	0.576757013798
237	38	0.580644514561	0.0135312601175	0.541760027409	0.594974994659
238	38	0.566974294186	0.00816683757101	0.559032976627	0.583669006824
238.611111111	37.9444444444	0.55967389875	0.00197442035862	0.557839989662	0.563233017921
225.25	37	0.738910893599	0.0145120157921	0.718878984451	0.757623016834
226	37	0.736920674642	0.013620949706	0.718878984451	0.757623016834
227	37	0.708396808306	0.0186726146971	0.680858016014	0.732277989388
228	37	0.687770115005	0.00546090405573	0.68082600832	0.696092009544
229	37	0.695501724879	0.00640856497424	0.681991994381	0.703920006752
230	37	0.634901894463	0.0304170277355	0.591466009617	0.677708029747
231	37	0.560164995988	0.0424772759893	0.497563004494	0.618353009224
232	37	0.563117331928	0.0489915826232	0.501051008701	0.625753998756
233	37	0.58531686465	0.0213119784129	0.560235977173	0.621075987816
234	37	0.566920671198	0.0388102291086	0.517560005188	0.626993000507
235	37	0.577169132232	0.0418405771933	0.52679002285	0.645196974277
236	37	0.548977997568	0.0130667182663	0.535758018494	0.572890996933
237	37	0.558186729749	0.015304704303	0.541760027409	0.582165002823
238	37	0.579425897863	0.0069536106772	0.566932022572	0.590416014194
238.71875	36.96875	0.568648941815	0.00328236594439	0.566309511662	0.573952972889
225.25	36	0.760283227762	0.0318022659136	0.718878984451	0.812360525131
226	36	0.720827869574	0.0211042709216	0.700416982174	0.771803975105
227	36	0.741946160793	0.0145834280443	0.70447999239	0.759496986866
228	36	0.716481800874	0.0162279901666	0.698396027088	0.74500900507
229	36	0.696618757248	0.0131880563905	0.681991994381	0.729158997536
230	36	0.695935734113	0.0343148302398	0.622802972794	0.732985019684
231	36	0.609643437862	0.0538897978785	0.501051008701	0.68381100893
232	36	0.557880731424	0.0319198354918	0.501051008701	0.614719986916
233	36	0.664849483967	0.0382182228733	0.573529005051	0.716425001621
234	36	0.702204676469	0.021549431429	0.663730025291	0.725066006184
235	36	0.720232887268	0.0321739281581	0.646641016006	0.760762989521
236	36	0.610220730305	0.0359974059566	0.538906991482	0.663062989712
237	36	0.552909479141	0.0119836096753	0.535651028156	0.576923012733
238	36	0.5786921978	0.00544009334016	0.569103002548	0.587409973145
238.979166667	35.9791666667	0.570847180982	0.00446001591532	0.565394997597	0.582446992397
239.916666667	35.6666666667	0.583517074585	0.00215745652389	0.579264521599	0.585180997849
240.5	35.5	0.584249973297	NaN	0.584249973297	0.584249973297
225.25	35	0.800134334299	0.0131551130654	0.776588976383	0.818629980087
226	35	0.756668322616	0.0150803605358	0.740489006042	0.778585970402
227	35	0.745716738701	0.0082165428144	0.735722005367	0.760053992271
228	35	0.752694666386	0.0178693484519	0.718928992748	0.773808002472
229	35	0.721917200089	0.0210945738671	0.697781980038	0.770519018173
230	35	0.69253433413	0.0236048494576	0.650704979897	0.72419500351
231	35	0.645745205879	0.0127027358984	0.62518799305	0.67245900631
232	35	0.66943845484	0.0315937497393	0.62518799305	0.709042012691
233	35	0.641902009646	0.0416133172507	0.559050023556	0.700432002544
234	35	0.574861692058	0.0446398899981	0.526651024818	0.647687017918
235	35	0.611326738198	0.0467549645937	0.545292973518	0.687143027782
236	35	0.536313123173	0.0146223453713	0.521390974522	0.562892019749
237	35	0.554061146577	0.0170498616409	0.528119027615	0.579460024834
238	35	0.570124334759	0.00930133774744	0.561663985252	0.583615005016
239	35	0.578587130706	0.0103755733812	0.565603017807	0.594704985619
240	35	0.586445099778	0.00282391981056	0.58395498991	0.592387974262
240.625	35	0.583547492822	0.000746082583507	0.582346022129	0.584249973297
225.25	34	0.742234794299	0.0165652564993	0.724130988121	0.778221964836
226	34	0.736317205429	0.00844021234902	0.722451984882	0.751587986946
227	34	0.774674642086	0.0201008479036	0.739256024361	0.811001002789
228	34	0.788173270226	0.00651629050302	0.778813004494	0.79902100563
229	34	0.758147559166	0.026980215837	0.704052984715	0.795459985733
230	34	0.686931665738	0.0254540369745	0.646797001362	0.723437011242
231	34	0.720078163147	0.0477740143196	0.637941002846	0.788800001144
232	34	0.761147073905	0.0240838776788	0.720654010773	0.790287017822
233	34	0.697401437759	0.0610840574727	0.559050023556	0.787964999676
234	34	0.585782806079	0.0676375457682	0.501079022884	0.690774023533
235	34	0.560526314974	0.0606576807977	0.493622988462	0.672263979912
236	34	0.558898866177	0.0359906701931	0.528491973877	0.640231013298
237	34	0.629255926609	0.037683756387	0.552621006966	0.677904009819
238	34	0.63407599926	0.020645042738	0.604726016521	0.668886005878
239	34	0.608707885742	0.010250858571	0.596877992153	0.632650017738
240	34	0.600587530931	0.0130780099854	0.587691009045	0.632534980774
240.965909091	33.9318181818	0.583712163297	0.0150588094909	0.550131976604	0.605883002281
241.857142857	33.8214285714	0.552970690387	0.00380039742326	0.545440971851	0.555275976658
243.375	33.5	0.605852007866	0	0.605852007866	0.605852007866
225.25	33	0.768440100882	0.0202786118039	0.742941975594	0.798784971237
226	33	0.785566442542	0.0213900959071	0.753103971481	0.810501992702
227	33	0.827798597018	0.0208929353859	0.785570979118	0.852853000164
228	33	0.812407884333	0.0209197778757	0.780139029026	0.841234982014
229	33	0.752095997334	0.0166302076584	0.729578018188	0.784434974194
230	33	0.723430898454	0.00709184505514	0.71357101202	0.735248982906
231	33	0.708353062471	0.0243862783491	0.674652993679	0.764119982719
232	33	0.764698002073	0.0185208416547	0.72842502594	0.784419000149
233	33	0.783720727761	0.0204354109999	0.74352401495	0.806881010532
234	33	0.711517678367	0.0105695055167	0.701748013496	0.730692028999
235	33	0.720730137825	0.0135911194039	0.704879999161	0.743862986565
236	33	0.677007887099	0.0362270884715	0.624786973	0.730732023716
237	33	0.631727540493	0.0126419679577	0.612821996212	0.65075302124
238	33	0.587755335702	0.0171574178619	0.568803012371	0.619494974613
239	33	0.621380070845	0.0267296109587	0.580060005188	0.656174004078
240	33	0.637873662843	0.0111774481077	0.624010980129	0.652314007282
241	33	0.583889671167	0.0211846538868	0.550131976604	0.612196981907
241.96875	32.96875	0.575867004693	0.0281266587491	0.536482989788	0.604432523251
243.057692308	32.9615384615	0.596795274661	0.00932543791602	0.582648992538	0.605852007866
243.75	33	0.605440000693	0.000367501747399	0.605145990849	0.605852007866
225.25	32	0.8231549263	0.00909853382607	0.804263472557	0.832799971104
226	32	0.827578866482	0.00865574757249	0.813872992992	0.837657988071
227	32	0.805399878025	0.0210905986733	0.754607021809	0.834599018097
228	32	0.785080063343	0.0233697455927	0.750356018543	0.82877099514
229	32	0.786635119915	0.0123635313743	0.754338026047	0.803372979164
230	32	0.7547088027	0.014568557887	0.730060994625	0.785732984543
231	32	0.722332122326	0.0228722265951	0.676355004311	0.754195988178
232	32	0.716150065263	0.00848677733618	0.706201970577	0.737367987633
233	32	0.741117641926	0.0156435289832	0.714230000973	0.767015993595
234	32	0.706106797854	0.01838020835	0.666585028172	0.730692028999
235	32	0.700886924267	0.023334404091	0.659204006195	0.739582002163
236	32	0.718638932705	0.020849756433	0.664381027222	0.737803995609
237	32	0.706711924076	0.0248030454659	0.654679000378	0.735545992851
238	32	0.627972861131	0.0505308991684	0.565006017685	0.718997001648
239	32	0.558012125492	0.0317163875868	0.510212004185	0.626164972782
240	32	0.610425142447	0.0110885355762	0.590282976627	0.628085017204
241	32	0.630427119732	0.0209719325859	0.607083022594	0.666638970375
242	32	0.644524737199	0.0185683830052	0.61009401083	0.667475998402
243	32	0.60294069767	0.0126494305403	0.585035026073	0.62589097023
244	31.71875	0.610348381102	0.00967528062863	0.594940006733	0.617448985577
244.75	31.75	0.631305661466	0.0132057660287	0.614184975624	0.644226014614
225.25	31	0.799124499162	0.00783370174678	0.789358019829	0.813694000244
226	31	0.787768774563	0.00305827541403	0.784169018269	0.790947973728
227	31	0.782462533315	0.0146120728773	0.754607021809	0.801594018936
228	31	0.766606344117	0.0132679480095	0.748549997807	0.785072982311
229	31	0.802422535419	0.00947904140229	0.781217992306	0.813699007034
230	31	0.795429666837	0.0142880178093	0.769824981689	0.813699007034
231	31	0.75424126784	0.0109685333839	0.739534020424	0.779581010342
232	31	0.738732549879	0.0137364273075	0.721403002739	0.760959982872
233	31	0.729294057687	0.00712931115628	0.717890977859	0.737487971783
234	31	0.67904220687	0.0163368399079	0.660296976566	0.702638983727
235	31	0.67889979283	0.0275001745002	0.652110993862	0.72508597374
236	31	0.761542439461	0.0117387246686	0.742541015148	0.773932993412
237	31	0.739730203152	0.015799062804	0.707630991936	0.765206992626
238	31	0.684697886308	0.022630664262	0.642580986023	0.718997001648
239	31	0.607402936618	0.044182144883	0.545955002308	0.675565004349
240	31	0.610974225733	0.0154870329628	0.590282976627	0.632027983665
241	31	0.64508026441	0.0168479394932	0.607644021511	0.664460003376
242	31	0.640068550905	0.0165081643101	0.616145014763	0.664460003376
243	31	0.616484328111	0.00689759751895	0.607877016068	0.633431971073
244	31	0.620391223166	0.00677276229027	0.61295902729	0.633431971073
244.75	31	0.620061112775	0.00631168286921	0.614657998085	0.630833029747
225.25	30.25	0.798292994499	0.00337212361836	0.791992008686	0.800993978977
226	30.25	0.80085100068	0.0093181220682	0.79012799263	0.819426000118
227	30.25	0.833104201158	0.0149779582046	0.809590995312	0.85637897253
228	30.25	0.813803447617	0.0128240450721	0.797951996326	0.835078001022
229	30.25	0.806765631835	0.00375932597531	0.799758970737	0.813884973526
230	30.25	0.808752437433	0.00424214040083	0.802770972252	0.813884973526
231	30.25	0.778764152527	0.010850162971	0.764719963074	0.797122478485
232	30.25	0.767703274886	0.00469782406742	0.756640970707	0.772729516029
233	30.25	0.752491776148	0.0138846234498	0.7269089818	0.774430036545
234	30.25	0.697722878721	0.0208791799957	0.666135013103	0.728141486645
235	30.25	0.672772343953	0.0234842485243	0.649589002132	0.717864990234
236	30.25	0.746136665344	0.0139098829384	0.728994965553	0.767055988312
237	30.25	0.711767363548	0.0254721757856	0.669550538063	0.757910013199
238	30.25	0.684339165688	0.0105431616575	0.666758537292	0.698648989201
239	30.25	0.716673998038	0.0170990298939	0.677608013153	0.737798988819
240	30.25	0.680018610424	0.0194148883417	0.654075980186	0.703341007233
241	30.25	0.663131467501	0.0220227437437	0.627044022083	0.697960019112
242	30.25	0.601911101076	0.00377515264384	0.596020996571	0.606662988663
243	30.25	0.639417632421	0.0201023721318	0.609097003937	0.668576478958
244	30.25	0.65589205424	0.00911652394147	0.639436006546	0.664665997028
244.75	30.25	0.645215994782	0.0145923045135	0.625115990639	0.664678514004
