225.25 48.875 0.0025988073411
226 48.875 0.0107271898435
227 48.875 0.0083357589565
228 48.875 0.00577257942647
229 48.875 0.00584263139796
230 48.875 0.00168977420113
231 48.875 0.0107521895962
232 48.875 0.00502832758677
233 48.875 0.0308705382382
234 48.875 0.0220949727446
235 48.875 0.0235081585237
225.25 48 0.0293018680106
226 48 0.0195374144698
227 48 0.0175114834869
228 48 0.00802348060705
229 48 0.00898261704084
230 48 0.00513549125368
231 48 0.00981253069284
232 48 0.00621122934701
233 48 0.0176896551707
234 48 0.0283169683103
235 48 0.0387778833489
236 47.875 0.0279439903295
236.607142857 47.8214285714 0.0103446271143
225.25 47 0.00830533097829
226 47 0.0117267330341
227 47 0.00926841578708
228 47 0.0162553136818
229 47 0.022043593212
230 47 0.0108817241881
231 47 0.00464685422837
232 47 0.0187605147317
233 47 0.0261913325158
234 47 0.0158190820656
235 47 0.0583403797
236 47 0.04039707182
236.625 47 0.00427662974825
225.25 46 0.00696884546124
226 46 0.00290353236704
227 46 0.0138430649032
228 46 0.0138004890061
229 46 0.00811395932749
230 46 0.0134887063823
231 46 0.0144678683261
232 46 0.0102053454798
233 46 0.0297509248254
234 46 0.0127344088496
235 46 0.043374686356
236 46 0.0231244186976
236.625 46 0.00888182525184
225.25 45 0.00592396277424
226 45 0.00732875099714
227 45 0.00652680592767
228 45 0.0107155217974
229 45 0.00512201827219
230 45 0.00923570383427
231 45 0.0127837013298
232 45 0.0100362882411
233 45 0.0252228162209
234 45 0.00313066238117
235 45 0.0502203376143
236 45 0.0263223025315
236.625 45 0.0179853467323
225.25 44 0.014214450221
226 44 0.00480874180366
227 44 0.0115045232545
228 44 0.0239124485914
229 44 0.0173021339527
230 44 0.00928385075991
231 44 0.0175795702862
232 44 0.0198575876351
233 44 0.0174994378646
234 44 0.018806830766
235 44 0.060102719403
236 44 0.0502677508824
236.625 44 0.0240678036375
225.25 43 0.0117303635683
226 43 0.012744061782
227 43 0.0100060705472
228 43 0.00644921632343
229 43 0.00722740745547
230 43 0.0167634436416
231 43 0.0228408792578
232 43 0.0236771770428
233 43 0.0194754440233
234 43 0.0160606082246
235 43 0.025561764703
236 43 0.0158152854142
236.625 43 0.00376890587997
225.25 42 0.00702496956169
226 42 0.00920805282719
227 42 0.0099782246771
228 42 0.0161524974666
229 42 0.016426862029
230 42 0.0224417563335
231 42 0.0303067712881
232 42 0.0141768692154
233 42 0.0309005724404
234 42 0.0370105451526
235 42 0.03439493738
236 42.0625 0.0408946303723
236.583333333 42.1666666667 0.019835153256
225.25 41 0.0111445560234
226 41 0.0135757762031
227 41 0.0186801299917
228 41 0.025604395492
229 41 0.0193531921474
230 41 0.0173486102524
231 41 0.0190902977008
232 41 0.0241233706745
233 41 0.0162464803261
234 41 0.0212506520649
235 41 0.0325096459685
236 41 0.0289117384213
236.625 41 0.00863175870889
225.25 40 0.0156487055298
226 40 0.0157627928614
227 40 0.0394148760549
228 40 0.0146469099842
229 40 0.0234272592123
230 40 0.0466638056948
231 40 0.0338724567277
232 40 0.0289949408054
233 40 0.0238662443235
234 40 0.0291167599226
235 40 0.0264718004554
236 40 0.0168614261585
236.625 40 0.00526727942447
225.25 39 0.00760140171144
226 39 0.0077242371435
227 39 0.0337962004665
228 39 0.0364049571585
229 39 0.0214563244824
230 39 0.0437183709981
231 39 0.0486429905143
232 39 0.0504329394738
233 39 0.0574937813337
234 39 0.0463430378976
235 39 0.013919291737
236 39 0.009568059053
236.625 39 0.0102144335348
225.25 38 0.0431601423172
226 38 0.0483064112354
227 38 0.0310411118867
228 38 0.0213382008774
229 38 0.0292768586296
230 38 0.0112893337868
231 38 0.038201394636
232 38 0.0378853656412
233 38 0.0435448380295
234 38 0.0409649229317
235 38 0.0365057198534
236 38 0.0174784124703
237 38 0.0135312601175
238 38 0.00816683757101
238.611111111 37.9444444444 0.00197442035862
225.25 37 0.0145120157921
226 37 0.013620949706
227 37 0.0186726146971
228 37 0.00546090405573
229 37 0.00640856497424
230 37 0.0304170277355
231 37 0.0424772759893
232 37 0.0489915826232
233 37 0.0213119784129
234 37 0.0388102291086
235 37 0.0418405771933
236 37 0.0130667182663
237 37 0.015304704303
238 37 0.0069536106772
238.71875 36.96875 0.00328236594439
225.25 36 0.0318022659136
226 36 0.0211042709216
227 36 0.0145834280443
228 36 0.0162279901666
229 36 0.0131880563905
230 36 0.0343148302398
231 36 0.0538897978785
232 36 0.0319198354918
233 36 0.0382182228733
234 36 0.021549431429
235 36 0.0321739281581
236 36 0.0359974059566
237 36 0.0119836096753
238 36 0.00544009334016
238.979166667 35.9791666667 0.00446001591532
239.916666667 35.6666666667 0.00215745652389
240.5 35.5 NA
225.25 35 0.0131551130654
226 35 0.0150803605358
227 35 0.0082165428144
228 35 0.0178693484519
229 35 0.0210945738671
230 35 0.0236048494576
231 35 0.0127027358984
232 35 0.0315937497393
233 35 0.0416133172507
234 35 0.0446398899981
235 35 0.0467549645937
236 35 0.0146223453713
237 35 0.0170498616409
238 35 0.00930133774744
239 35 0.0103755733812
240 35 0.00282391981056
240.625 35 0.000746082583507
225.25 34 0.0165652564993
226 34 0.00844021234902
227 34 0.0201008479036
228 34 0.00651629050302
229 34 0.026980215837
230 34 0.0254540369745
231 34 0.0477740143196
232 34 0.0240838776788
233 34 0.0610840574727
234 34 0.0676375457682
235 34 0.0606576807977
236 34 0.0359906701931
237 34 0.037683756387
238 34 0.020645042738
239 34 0.010250858571
240 34 0.0130780099854
240.965909091 33.9318181818 0.0150588094909
241.857142857 33.8214285714 0.00380039742326
243.375 33.5 0
225.25 33 0.0202786118039
226 33 0.0213900959071
227 33 0.0208929353859
228 33 0.0209197778757
229 33 0.0166302076584
230 33 0.00709184505514
231 33 0.0243862783491
232 33 0.0185208416547
233 33 0.0204354109999
234 33 0.0105695055167
235 33 0.0135911194039
236 33 0.0362270884715
237 33 0.0126419679577
238 33 0.0171574178619
239 33 0.0267296109587
240 33 0.0111774481077
241 33 0.0211846538868
241.96875 32.96875 0.0281266587491
243.057692308 32.9615384615 0.00932543791602
243.75 33 0.000367501747399
225.25 32 0.00909853382607
226 32 0.00865574757249
227 32 0.0210905986733
228 32 0.0233697455927
229 32 0.0123635313743
230 32 0.014568557887
231 32 0.0228722265951
232 32 0.00848677733618
233 32 0.0156435289832
234 32 0.01838020835
235 32 0.023334404091
236 32 0.020849756433
237 32 0.0248030454659
238 32 0.0505308991684
239 32 0.0317163875868
240 32 0.0110885355762
241 32 0.0209719325859
242 32 0.0185683830052
243 32 0.0126494305403
244 31.71875 0.00967528062863
244.75 31.75 0.0132057660287
225.25 31 0.00783370174678
226 31 0.00305827541403
227 31 0.0146120728773
228 31 0.0132679480095
229 31 0.00947904140229
230 31 0.0142880178093
231 31 0.0109685333839
232 31 0.0137364273075
233 31 0.00712931115628
234 31 0.0163368399079
235 31 0.0275001745002
236 31 0.0117387246686
237 31 0.015799062804
238 31 0.022630664262
239 31 0.044182144883
240 31 0.0154870329628
241 31 0.0168479394932
242 31 0.0165081643101
243 31 0.00689759751895
244 31 0.00677276229027
244.75 31 0.00631168286921
225.25 30.25 0.00337212361836
226 30.25 0.0093181220682
227 30.25 0.0149779582046
228 30.25 0.0128240450721
229 30.25 0.00375932597531
230 30.25 0.00424214040083
231 30.25 0.010850162971
232 30.25 0.00469782406742
233 30.25 0.0138846234498
234 30.25 0.0208791799957
235 30.25 0.0234842485243
236 30.25 0.0139098829384
237 30.25 0.0254721757856
238 30.25 0.0105431616575
239 30.25 0.0170990298939
240 30.25 0.0194148883417
241 30.25 0.0220227437437
242 30.25 0.00377515264384
243 30.25 0.0201023721318
244 30.25 0.00911652394147
244.75 30.25 0.0145923045135
